-31.061793553567966, -20.644145869448252, 42.8323175211142, -31.061793553567966, -20.644145869448252, 42.8323175211142
-23.52724541236813, 0.7987645047408906, 32.542767080233524, -23.52724541236813, 0.7987645047408906, 32.542767080233524
-29.16229317296474, -3.1600008082159983, 40.462019471050475, -29.16229317296474, -3.1600008082159983, 40.462019471050475
-30.327794475292695, 4.615099159283668, 42.20980657397548, -30.327794475292695, 4.615099159283668, 42.20980657397548
-30.071609293983872, -15.59614519284257, 41.85325156767676, -30.071609293983872, -15.59614519284257, 41.85325156767676
-29.14181382902301, -3.3485935145150685, 40.559175047825285, -29.14181382902301, -3.3485935145150685, 40.559175047825285
-23.835378408675524, -1.5593238211283083, 33.27709634763577, -23.835378408675524, -1.5593238211283083, 33.27709634763577
-29.14156432097499, -3.994482336831467, 40.6851792743909, -29.14156432097499, -3.994482336831467, 40.6851792743909
-30.81770193158683, -22.246528581864244, 43.159725854380476, -30.81770193158683, -22.246528581864244, 43.159725854380476
-30.781823844681252, -20.970117494189104, 43.109479135839884, -30.781823844681252, -20.970117494189104, 43.109479135839884
-31.022415570988752, -24.042372067516286, 43.44642421283866, -31.022415570988752, -24.042372067516286, 43.44642421283866
-23.50968036498732, 0.5877420091246804, 32.92495208531333, -23.50968036498732, 0.5877420091246804, 32.92495208531333
-23.513553325732765, 0.1469597082858273, 32.93037610831119, -23.513553325732765, 0.1469597082858273, 32.93037610831119
-23.721322108722724, 4.2386061448187915, 33.32549532207819, -23.721322108722724, 4.2386061448187915, 33.32549532207819
-23.721322108722724, 4.2386061448187915, 33.32549532207819, -23.721322108722724, 4.2386061448187915, 33.32549532207819
-29.337281040645244, -3.321201627242861, 41.34482391743803, -29.337281040645244, -3.321201627242861, 41.34482391743803
-29.31155551069376, -4.53080826505992, 41.438880052499776, -29.31155551069376, -4.53080826505992, 41.438880052499776
-29.308309113068916, -4.1604855207826565, 41.43429049457851, -29.308309113068916, -4.1604855207826565, 41.43429049457851
-29.808422991327518, 5.924071446225971, 42.141320833046485, -29.808422991327518, 5.924071446225971, 42.141320833046485
-23.89188440055142, 0.3768436025323541, 33.776881323866924, -23.89188440055142, 0.3768436025323541, 33.776881323866924
-23.85291193505026, -1.207742376458243, 33.82849894931906, -23.85291193505026, -1.207742376458243, 33.82849894931906
-30.063690206459658, -20.61510185585805, 42.772057221654485, -30.063690206459658, -20.61510185585805, 42.772057221654485
-30.063690206459658, -20.61510185585805, 42.772057221654485, -30.063690206459658, -20.61510185585805, 42.772057221654485
-30.158247239659367, -21.350124236330284, 42.90658491293102, -30.158247239659367, -21.350124236330284, 42.90658491293102
-30.75386856930061, -24.603094855440485, 43.753984198211676, -30.75386856930061, -24.603094855440485, 43.753984198211676
-29.103818115709846, -2.965994202874894, 41.538300605911054, -29.103818115709846, -2.965994202874894, 41.538300605911054
-30.681545017380248, -25.01425326257753, 43.79010461509851, -30.681545017380248, -25.01425326257753, 43.79010461509851
-29.925345441831976, 4.397974090492875, 42.84727828784455, -29.925345441831976, 4.397974090492875, 42.84727828784455
-29.925345441831976, 4.397974090492875, 42.84727828784455, -29.925345441831976, 4.397974090492875, 42.84727828784455
-29.120448571910767, -4.372719114631972, 41.694822412420656, -29.120448571910767, -4.372719114631972, 41.694822412420656
-23.78862397867654, -1.5249117935049068, 34.169854770294116, -23.78862397867654, -1.5249117935049068, 34.169854770294116
-29.875676050271938, -23.61142139456976, 43.19012422502781, -29.875676050271938, -23.61142139456976, 43.19012422502781
-28.86038710485586, -2.6998426646478113, 41.72235975994824, -28.86038710485586, -2.6998426646478113, 41.72235975994824
-30.100558212555764, -25.61956896408468, 43.6560537610086, -30.100558212555764, -25.61956896408468, 43.6560537610086
-24.120632075579255, 7.621176909873571, 35.21102876728945, -24.120632075579255, 7.621176909873571, 35.21102876728945
-29.121011827019174, -15.417006261363094, 42.649450460043575, -29.121011827019174, -15.417006261363094, 42.649450460043575
-28.90187845784184, -2.653287202687122, 42.46729865475289, -28.90187845784184, -2.653287202687122, 42.46729865475289
-23.980775100660512, 7.390796260531433, 35.23642034747722, -23.980775100660512, 7.390796260531433, 35.23642034747722
-29.134334439583423, -21.084057818119586, 42.949679073672236, -29.134334439583423, -21.084057818119586, 42.949679073672236
-29.313367370042496, -14.560258134461899, 43.21360845646908, -29.313367370042496, -14.560258134461899, 43.21360845646908
-29.313367370042496, -14.560258134461899, 43.21360845646908, -29.313367370042496, -14.560258134461899, 43.21360845646908
-23.922982067536893, 2.605473294484215, 35.38352461955098, -23.922982067536893, 2.605473294484215, 35.38352461955098
-23.603261177999137, 8.704192660325264, 35.142602631008785, -23.603261177999137, 8.704192660325264, 35.142602631008785
-28.739055703502796, -2.5779219401813176, 42.78922336037298, -28.739055703502796, -2.5779219401813176, 42.78922336037298
-23.792577271437445, 1.7389923587097114, 35.42447301295239, -23.792577271437445, 1.7389923587097114, 35.42447301295239
-29.147195010058738, -20.500193823741316, 43.54155323157031, -29.147195010058738, -20.500193823741316, 43.54155323157031
-23.97628448779619, 3.367906182232239, 35.93677496533245, -23.97628448779619, 3.367906182232239, 35.93677496533245
-23.70089875779177, -0.47719930384816023, 35.64322207231653, -23.70089875779177, -0.47719930384816023, 35.64322207231653
-28.95530510012504, -23.69070417282958, 43.69181655000546, -28.95530510012504, -23.69070417282958, 43.69181655000546
-29.341054783371586, -20.816288866581193, 44.42346360823295, -29.341054783371586, -20.816288866581193, 44.42346360823295
-29.341054783371586, -20.816288866581193, 44.42346360823295, -29.341054783371586, -20.816288866581193, 44.42346360823295
-29.262554976262464, -22.045776215224762, 44.30461193946671, -29.262554976262464, -22.045776215224762, 44.30461193946671
-29.262554976262464, -22.045776215224762, 44.30461193946671, -29.262554976262464, -22.045776215224762, 44.30461193946671
-23.819888560694135, 2.8970134735979345, 36.064209703457934, -23.819888560694135, 2.8970134735979345, 36.064209703457934
-29.0907178791884, -18.14471894837514, 44.193747293576436, -29.0907178791884, -18.14471894837514, 44.193747293576436
-29.347988207706084, -24.039307746926486, 44.88891630702712, -29.347988207706084, -24.039307746926486, 44.88891630702712
-23.574067273380088, 8.287129451051698, 36.05747437819686, -23.574067273380088, 8.287129451051698, 36.05747437819686
-23.5280059065145, 8.672439037213536, 35.98702168387304, -23.5280059065145, 8.672439037213536, 35.98702168387304
-29.093956163811683, -21.023372433439267, 44.65276269035117, -29.093956163811683, -21.023372433439267, 44.65276269035117
-29.141258420916106, -21.55654732506123, 44.7253611520148, -29.141258420916106, -21.55654732506123, 44.7253611520148
-23.592153547861216, 6.729033486159727, 36.33314587671435, -23.592153547861216, 6.729033486159727, 36.33314587671435
-28.716913327240977, -2.2775482983673885, 44.378044866206935, -28.716913327240977, -2.2775482983673885, 44.378044866206935
-23.544973251780267, 5.702934697663037, 36.51142337986371, -23.544973251780267, 5.702934697663037, 36.51142337986371
-29.12820579840382, -26.599715711736824, 45.32623561181042, -29.12820579840382, -26.599715711736824, 45.32623561181042
-23.55964581460434, 0.5726302802160762, 36.66103104716725, -23.55964581460434, 0.5726302802160762, 36.66103104716725
-23.55964581460434, 0.5726302802160762, 36.66103104716725, -23.55964581460434, 0.5726302802160762, 36.66103104716725
-23.54459233970695, 4.986875460840705, 36.637606420374304, -23.54459233970695, 4.986875460840705, 36.637606420374304
-28.900973658667688, -2.3242041753474023, 45.28713496250718, -28.900973658667688, -2.3242041753474023, 45.28713496250718
-17.23286891086829, 7.672584744768214, 27.28974981842934, -17.23286891086829, 7.672584744768214, 27.28974981842934
-29.047577458885016, -3.708201377730006, 46.16248882785373, -29.047577458885016, -3.708201377730006, 46.16248882785373
-29.071168737425708, -2.680320521890314, 46.199980151652106, -29.071168737425708, -2.680320521890314, 46.199980151652106
-29.071168737425708, -2.680320521890314, 46.199980151652106, -29.071168737425708, -2.680320521890314, 46.199980151652106
-29.036060986668403, -3.3065976924319944, 46.30840100696093, -29.036060986668403, -3.3065976924319944, 46.30840100696093
-4.1708808027834685, 4.21556881138472, 6.675720612747705, -4.1708808027834685, 4.21556881138472, 6.675720612747705
-4.1708808027834685, 4.21556881138472, 6.675720612747705, -4.1708808027834685, 4.21556881138472, 6.675720612747705
-23.276158920040665, 1.2469370850021737, 37.254752949163496, -23.276158920040665, 1.2469370850021737, 37.254752949163496
-29.05606871251936, -25.52783179742772, 46.50581160222361, -29.05606871251936, -25.52783179742772, 46.50581160222361
-28.697227727452024, -2.06454875737065, 46.261909381265006, -28.697227727452024, -2.06454875737065, 46.261909381265006
-28.76696881787533, -18.90104088394697, 46.541753205165456, -28.76696881787533, -18.90104088394697, 46.541753205165456
-28.688239585722048, -1.9677853867462802, 46.4143780716883, -28.688239585722048, -1.9677853867462802, 46.4143780716883
-28.824588152965514, -3.5380360909777187, 46.63497487515061, -28.824588152965514, -3.5380360909777187, 46.63497487515061
-28.755547706677064, -22.60852845053958, 46.69183770965562, -28.755547706677064, -22.60852845053958, 46.69183770965562
-23.30547318968288, 3.462044930351438, 37.84227596773362, -23.30547318968288, 3.462044930351438, 37.84227596773362
-28.764104263323972, -22.3369600872699, 47.21898121946938, -28.764104263323972, -22.3369600872699, 47.21898121946938
-28.601908737105656, -5.362857888207314, 47.125342316945925, -28.601908737105656, -5.362857888207314, 47.125342316945925
-28.723062184424467, -26.083074851297223, 47.32495828419675, -28.723062184424467, -26.083074851297223, 47.32495828419675
-28.536164164451577, -1.7036515919075597, 47.71876619570053, -28.536164164451577, -1.7036515919075597, 47.71876619570053
-23.128354262592204, 1.6458379437799675, 38.8205670607428, -23.128354262592204, 1.6458379437799675, 38.8205670607428
-28.93365522295802, -25.017822185264457, 48.74724440260198, -28.93365522295802, -25.017822185264457, 48.74724440260198
-16.3778259772953, 3.213762078563603, 27.697386008345244, -16.3778259772953, 3.213762078563603, 27.697386008345244
-28.82825669267161, -16.70728512870741, 48.937621649361944, -28.82825669267161, -16.70728512870741, 48.937621649361944
-17.899422346162073, 8.23509545203654, 30.500831037809313, -17.899422346162073, 8.23509545203654, 30.500831037809313
-8.629230254896996, 5.632054861020557, 14.760435507323473, -8.629230254896996, 5.632054861020557, 14.760435507323473
-28.642381708895623, -15.653394654861565, 49.752834424545426, -28.642381708895623, -15.653394654861565, 49.752834424545426
-23.287433997210815, 9.77158995177081, 40.92699533265802, -23.287433997210815, 9.77158995177081, 40.92699533265802
-23.03240312312417, 1.269502534345423, 40.63815120686002, -23.03240312312417, 1.269502534345423, 40.63815120686002
-28.791874934669092, -24.77707165692639, 51.407280648188625, -28.791874934669092, -24.77707165692639, 51.407280648188625
-23.343798743059526, 6.349513258112186, 41.84657584706401, -23.343798743059526, 6.349513258112186, 41.84657584706401
-28.749485033510158, -24.49456124855066, 51.53692075830225, -28.749485033510158, -24.49456124855066, 51.53692075830225
-23.222356685685167, 9.3638535022924, 41.964593050753656, -23.222356685685167, 9.3638535022924, 41.964593050753656
-23.267742678420763, 8.913046590524079, 42.04660904685313, -23.267742678420763, 8.913046590524079, 42.04660904685313
-23.267742678420763, 8.913046590524079, 42.04660904685313, -23.267742678420763, 8.913046590524079, 42.04660904685313
-23.240995043272555, 5.976255868270083, 42.51253858283392, -23.240995043272555, 5.976255868270083, 42.51253858283392
-3.6855597193720864, 4.22711135160635, 6.741643353798589, -3.6855597193720864, 4.22711135160635, 6.741643353798589
-23.259438156822362, 6.075934865455633, 42.546274813787626, -23.259438156822362, 6.075934865455633, 42.546274813787626
-23.304272465451767, 1.7191676408939776, 42.80299203413677, -23.304272465451767, 1.7191676408939776, 42.80299203413677
-23.364795457100833, 4.0218090540911255, 42.914154703268686, -23.364795457100833, 4.0218090540911255, 42.914154703268686
-28.364221731357237, -7.672289484711388, 52.09660840610316, -28.364221731357237, -7.672289484711388, 52.09660840610316
-23.303698437341286, 2.118518039758296, 43.155672738294165, -23.303698437341286, 2.118518039758296, 43.155672738294165
-28.68958807298159, -24.761138253859635, 53.35015376509152, -28.68958807298159, -24.761138253859635, 53.35015376509152
-3.8456265801806935, -1.0895941977178638, 7.180989216625047, -3.8456265801806935, -1.0895941977178638, 7.180989216625047
-22.95756121571909, 2.785645503162563, 43.04832476665525, -22.95756121571909, 2.785645503162563, 43.04832476665525
-22.974948708065718, 9.324560772729596, 43.08092850929072, -22.974948708065718, 9.324560772729596, 43.08092850929072
-23.249326696876174, 1.079082673694671, 43.963315723139985, -23.249326696876174, 1.079082673694671, 43.963315723139985
-28.381513862685512, -17.603723788247976, 53.6680253546253, -28.381513862685512, -17.603723788247976, 53.6680253546253
-22.97552366717638, 5.181713848341902, 43.815317381341295, -22.97552366717638, 5.181713848341902, 43.815317381341295
-5.184366001852377, 4.7855686170945, 9.929061527792307, -5.184366001852377, 4.7855686170945, 9.929061527792307
-23.652141879407367, 10.861713223590504, 45.49283060388747, -23.652141879407367, 10.861713223590504, 45.49283060388747
-23.22223139966105, 0.39866491673237675, 44.66593531763168, -23.22223139966105, 0.39866491673237675, 44.66593531763168
-23.11324665668439, 6.176815916872546, 44.64793471383659, -23.11324665668439, 6.176815916872546, 44.64793471383659
-4.836477036893017, 4.6899171266841355, 9.38308294910687, -4.836477036893017, 4.6899171266841355, 9.38308294910687
-29.63932662578097, 6.85975681732048, 58.004442334439894, -29.63932662578097, 6.85975681732048, 58.004442334439894
-32.65155522855475, 1.288877180074522, 64.1796627151765, -32.65155522855475, 1.288877180074522, 64.1796627151765
-28.443947798702386, -14.720990527398607, 55.909219736410364, -28.443947798702386, -14.720990527398607, 55.909219736410364
-23.237952800687, 3.465308750979637, 45.6763533160897, -23.237952800687, 3.465308750979637, 45.6763533160897
-28.469560411632127, -23.556671668031896, 56.4547810825575, -28.469560411632127, -23.556671668031896, 56.4547810825575
-28.514587304298605, -23.972440654056353, 56.544068845753, -28.514587304298605, -23.972440654056353, 56.544068845753
-28.444047149721506, -18.96269809981434, 56.65487388699495, -28.444047149721506, -18.96269809981434, 56.65487388699495
-28.35370728133349, -15.442644144297706, 56.72705511612028, -28.35370728133349, -15.442644144297706, 56.72705511612028
-23.61141580856868, 5.717562572478513, 47.45102211541069, -23.61141580856868, 5.717562572478513, 47.45102211541069
-3.8087205360772627, -0.7514964286430482, 7.654250124350197, -3.8087205360772627, -0.7514964286430482, 7.654250124350197
-4.5236498046821065, 4.645910610214055, 9.131968565700566, -4.5236498046821065, 4.645910610214055, 9.131968565700566
-23.38152579632098, 6.951264425933261, 47.20068259243265, -23.38152579632098, 6.951264425933261, 47.20068259243265
-23.38152579632098, 6.951264425933261, 47.20068259243265, -23.38152579632098, 6.951264425933261, 47.20068259243265
-23.104247076952213, 1.5610977754697382, 46.64093533998342, -23.104247076952213, 1.5610977754697382, 46.64093533998342
-23.104247076952213, 1.5610977754697382, 46.64093533998342, -23.104247076952213, 1.5610977754697382, 46.64093533998342
-22.981597512345438, 10.71088028855918, 46.60326520224006, -22.981597512345438, 10.71088028855918, 46.60326520224006
-33.469638253013954, -22.924409762338325, 68.49128416128661, -33.469638253013954, -22.924409762338325, 68.49128416128661
-28.367300149949756, -23.552666638261034, 58.316293854492535, -28.367300149949756, -23.552666638261034, 58.316293854492535
-28.369619670396204, -23.814864218727088, 58.321062226358784, -28.369619670396204, -23.814864218727088, 58.321062226358784
-23.042058126982496, 7.398826004076942, 47.36888691001456, -23.042058126982496, 7.398826004076942, 47.36888691001456
-23.095153865202008, 1.383580646302422, 47.69683168511579, -23.095153865202008, 1.383580646302422, 47.69683168511579
-22.94048866743308, 6.462109483783963, 48.2671289603191, -22.94048866743308, 6.462109483783963, 48.2671289603191
-475.28167356906374, -419.49743958208444, 999.9997019767584, -475.28167356906374, -419.49743958208444, 999.9997019767584
-32.4726345501173, -23.282266281216177, 68.64518336326978, -32.4726345501173, -23.282266281216177, 68.64518336326978
-23.00466969178622, 3.9064533438882236, 48.63047889652722, -23.00466969178622, 3.9064533438882236, 48.63047889652722
-22.932459721887724, 4.435051172629223, 48.47783139215895, -22.932459721887724, 4.435051172629223, 48.47783139215895
-22.932459721887724, 4.435051172629223, 48.47783139215895, -22.932459721887724, 4.435051172629223, 48.47783139215895
-22.71943890088689, 8.894874664026467, 48.02751827404012, -22.71943890088689, 8.894874664026467, 48.02751827404012
-22.95727832466464, 3.1552657413046137, 48.76029782058583, -22.95727832466464, 3.1552657413046137, 48.76029782058583
-30.999233134526758, -12.816990622929337, 66.79070393983746, -30.999233134526758, -12.816990622929337, 66.79070393983746
-22.699478257044994, 6.111397992281338, 48.90811734843953, -22.699478257044994, 6.111397992281338, 48.90811734843953
-22.9517739856052, 2.0965562775312416, 49.45171174119184, -22.9517739856052, 2.0965562775312416, 49.45171174119184
-31.145633577704945, -16.400357777632077, 67.43032142104634, -31.145633577704945, -16.400357777632077, 67.43032142104634
-22.55012242029797, 3.520019109509922, 49.29733570202205, -22.55012242029797, 3.520019109509922, 49.29733570202205
-22.80292354895546, 11.34584488777296, 49.84999000132024, -22.80292354895546, 11.34584488777296, 49.84999000132024
-4.864708154326754, 4.936956295232597, 10.792792486714868, -4.864708154326754, 4.936956295232597, 10.792792486714868
-28.68480858406167, 2.4260783379554587, 63.95644330718775, -28.68480858406167, 2.4260783379554587, 63.95644330718775
-4.645462267127761, 4.878902582058802, 10.461748269900577, -4.645462267127761, 4.878902582058802, 10.461748269900577
-23.324789714400794, 6.630397076174838, 53.06154805788684, -23.324789714400794, 6.630397076174838, 53.06154805788684
-6.747338146682887, 5.749007502530826, 15.42782875465326, -6.747338146682887, 5.749007502530826, 15.42782875465326
-22.878532467508162, 4.6690882586751306, 52.31190039586427, -22.878532467508162, 4.6690882586751306, 52.31190039586427
-23.083739803005106, 7.419773508108781, 52.78110818750311, -23.083739803005106, 7.419773508108781, 52.78110818750311
-22.87303211844949, 4.901364025382032, 52.29932381506704, -22.87303211844949, 4.901364025382032, 52.29932381506704
-29.5705021715341, -16.595689994228323, 67.61312887746864, -29.5705021715341, -16.595689994228323, 67.61312887746864
-29.44857572806651, -17.216090425638882, 67.6796476650028, -29.44857572806651, -17.216090425638882, 67.6796476650028
-22.680317475357057, 11.747241359031086, 52.12462259081737, -22.680317475357057, 11.747241359031086, 52.12462259081737
-15.041498910087935, 8.947763454206152, 34.56884828620245, -15.041498910087935, 8.947763454206152, 34.56884828620245
-22.841224896327443, 7.417511177673343, 52.76501493245452, -22.841224896327443, 7.417511177673343, 52.76501493245452
-28.87187591306715, -12.947696930086817, 66.69629017688574, -28.87187591306715, -12.947696930086817, 66.69629017688574
-22.736262872125053, 8.289262505462252, 53.06965429005946, -22.736262872125053, 8.289262505462252, 53.06965429005946
-22.887104053157962, 6.317794348007139, 53.42173894773357, -22.887104053157962, 6.317794348007139, 53.42173894773357
-28.337968590304214, -9.888770289324908, 66.14482797055412, -28.337968590304214, -9.888770289324908, 66.14482797055412
-22.82045508032981, 5.348544159452297, 53.26617081559722, -22.82045508032981, 5.348544159452297, 53.26617081559722
-4.587880438044793, 4.951997933127711, 10.878742389603994, -4.587880438044793, 4.951997933127711, 10.878742389603994
-14.978512757964776, 9.113909879184911, 35.51691982250928, -14.978512757964776, 9.113909879184911, 35.51691982250928
-22.83684321048409, 2.2957673068740587, 54.15052498284131, -22.83684321048409, 2.2957673068740587, 54.15052498284131
-28.40157279354633, -16.680288783511337, 67.34556361112378, -28.40157279354633, -16.680288783511337, 67.34556361112378
-22.622801614286782, 7.660631234467476, 53.642991402327496, -22.622801614286782, 7.660631234467476, 53.642991402327496
-27.76877263674915, 1.329356136865643, 66.19531310768802, -27.76877263674915, 1.329356136865643, 66.19531310768802
-27.869988848230573, -12.007814344184453, 66.43659272412019, -27.869988848230573, -12.007814344184453, 66.43659272412019
-22.406863836724508, 12.037730039942419, 53.41357311091262, -22.406863836724508, 12.037730039942419, 53.41357311091262
-22.342377444312604, 4.735612610479299, 54.417673016647875, -22.342377444312604, 4.735612610479299, 54.417673016647875
-4.730414038478716, 5.064628073806013, 11.521518917174275, -4.730414038478716, 5.064628073806013, 11.521518917174275
-4.730414038478716, 5.064628073806013, 11.521518917174275, -4.730414038478716, 5.064628073806013, 11.521518917174275
-22.642183974017374, 3.199439039806797, 55.14788956331548, -22.642183974017374, 3.199439039806797, 55.14788956331548
-22.520613305618255, 12.306346068643848, 55.151525446863495, -22.520613305618255, 12.306346068643848, 55.151525446863495
-22.23173365901662, 5.223849985451988, 54.444077875857225, -22.23173365901662, 5.223849985451988, 54.444077875857225
-22.38869590022767, 6.117130027384602, 54.82846825292517, -22.38869590022767, 6.117130027384602, 54.82846825292517
-27.986256406608984, -16.914770355642798, 68.91310625750461, -27.986256406608984, -16.914770355642798, 68.91310625750461
-27.548151928285538, -23.612701652816177, 67.83432172741423, -27.548151928285538, -23.612701652816177, 67.83432172741423
-4.707035825979031, 5.099288811477282, 11.719346744975253, -4.707035825979031, 5.099288811477282, 11.719346744975253
-4.707035825979031, 5.099288811477282, 11.719346744975253, -4.707035825979031, 5.099288811477282, 11.719346744975253
-23.81052801889248, 8.247221995370573, 59.613469816057076, -23.81052801889248, 8.247221995370573, 59.613469816057076
-23.090061560221873, 7.004850136247083, 58.13444007244349, -23.090061560221873, 7.004850136247083, 58.13444007244349
-22.629791563632157, 5.08534641879374, 56.97560649964848, -22.629791563632157, 5.08534641879374, 56.97560649964848
-394.9523766278135, -350.3249894382301, 999.9997019767584, -394.9523766278135, -350.3249894382301, 999.9997019767584
-23.08513297827326, 8.999289127123468, 58.45040431323077, -23.08513297827326, 8.999289127123468, 58.45040431323077
-22.814043016095653, 8.995251246346285, 58.424178267966404, -22.814043016095653, 8.995251246346285, 58.424178267966404
-22.814043016095653, 8.995251246346285, 58.424178267966404, -22.814043016095653, 8.995251246346285, 58.424178267966404
-22.39074556362218, 12.739562131026398, 57.66970262942926, -22.39074556362218, 12.739562131026398, 57.66970262942926
-22.832804132706677, 7.742157723159152, 58.80827062179271, -22.832804132706677, 7.742157723159152, 58.80827062179271
-22.493125791327646, 3.4903126227922185, 57.93339359363279, -22.493125791327646, 3.4903126227922185, 57.93339359363279
-27.38207280131973, -15.35295411403477, 70.93304818469574, -27.38207280131973, -15.35295411403477, 70.93304818469574
-22.45548731608324, 6.565931963767021, 58.851126363940615, -22.45548731608324, 6.565931963767021, 58.851126363940615
-27.545270881731017, -12.47638739937229, 72.61503175586653, -27.545270881731017, -12.47638739937229, 72.61503175586653
-27.358492694781187, 4.047114303961711, 72.54940703805728, -27.358492694781187, 4.047114303961711, 72.54940703805728
-22.282178440725897, 8.753712958856596, 59.439722266180645, -22.282178440725897, 8.753712958856596, 59.439722266180645
-22.26475011737141, 9.011922666555083, 59.393230640484724, -22.26475011737141, 9.011922666555083, 59.393230640484724
-27.58990728632234, -20.85665610335082, 73.59856805792857, -27.58990728632234, -20.85665610335082, 73.59856805792857
-22.45040644910531, 5.746234983997186, 59.88848566344295, -22.45040644910531, 5.746234983997186, 59.88848566344295
-22.349312198647354, 5.219300453576326, 59.97580647324362, -22.349312198647354, 5.219300453576326, 59.97580647324362
-27.461933597690813, -20.51169114395425, 75.97041582884883, -27.461933597690813, -20.51169114395425, 75.97041582884883
-3.1745206870106832, 4.594182112257696, 8.836508323938151, -3.1745206870106832, 4.594182112257696, 8.836508323938151
-23.42702563707849, 9.312606464428711, 65.21082313125272, -23.42702563707849, 9.312606464428711, 65.21082313125272
-22.75717686015043, 7.965011901052645, 63.74216459644821, -22.75717686015043, 7.965011901052645, 63.74216459644821
-22.327491017447354, 6.140060029798017, 62.53862753740713, -22.327491017447354, 6.140060029798017, 62.53862753740713
-2.873538969079719, 4.473991053124119, 8.150578030978325, -2.873538969079719, 4.473991053124119, 8.150578030978325
-27.063851753070658, -6.50902763681447, 76.7645881631725, -27.063851753070658, -6.50902763681447, 76.7645881631725
-27.374880026935315, -20.617789387375336, 77.64679656307678, -27.374880026935315, -20.617789387375336, 77.64679656307678
-22.183728097776818, 13.564572594818937, 63.323263127998295, -22.183728097776818, 13.564572594818937, 63.323263127998295
-22.166633471486566, 3.8612845401944322, 64.09091139381596, -22.166633471486566, 3.8612845401944322, 64.09091139381596
-3.269296505252503, 4.712881975104258, 9.513974756835387, -3.269296505252503, 4.712881975104258, 9.513974756835387
-21.59820891807998, 13.975311652875266, 63.26371808431852, -21.59820891807998, 13.975311652875266, 63.26371808431852
-27.090791706255885, -8.809857860602418e-15, 79.35214515639217, -27.090791706255885, -8.809857860602418e-15, 79.35214515639217
-3.341204698092917, 4.760670746302323, 9.786785232233122, -3.341204698092917, 4.760670746302323, 9.786785232233122
-27.248302572572527, -11.114439207233538, 80.33860208622231, -27.248302572572527, -11.114439207233538, 80.33860208622231
-27.150419075732568, -19.186296146851017, 81.11733681662899, -27.150419075732568, -19.186296146851017, 81.11733681662899
-27.150419075732568, -19.186296146851017, 81.11733681662899, -27.150419075732568, -19.186296146851017, 81.11733681662899
-22.03862866084905, 5.176859081407488, 66.28674663822333, -22.03862866084905, 5.176859081407488, 66.28674663822333
-18.099165774607368, 12.558604823196946, 55.1784667479078, -18.099165774607368, 12.558604823196946, 55.1784667479078
-2.75573353140531, 4.517903272576052, 8.40133478649466, -2.75573353140531, 4.517903272576052, 8.40133478649466
-2.9350425699175235, 4.63534309318009, 9.071410242999212, -2.9350425699175235, 4.63534309318009, 9.071410242999212
-29.324930924268166, -19.617367583820783, 90.63530508490234, -29.324930924268166, -19.617367583820783, 90.63530508490234
-14.245690197915948, 10.360501962120686, 44.645312109310154, -14.245690197915948, 10.360501962120686, 44.645312109310154
-14.245690197915948, 10.360501962120686, 44.645312109310154, -14.245690197915948, 10.360501962120686, 44.645312109310154
-28.193904159575645, -3.94320337896163, 88.35834791412043, -28.193904159575645, -3.94320337896163, 88.35834791412043
-21.894978392200198, 4.779889649001448, 69.10103971368312, -21.894978392200198, 4.779889649001448, 69.10103971368312
-28.227021032949768, -12.211689950425074, 89.71691666346291, -28.227021032949768, -12.211689950425074, 89.71691666346291
-21.937622722408097, 8.931746394123293, 70.22470654396454, -21.937622722408097, 8.931746394123293, 70.22470654396454
-21.804995495880885, 11.922155810697456, 70.30231179608774, -21.804995495880885, 11.922155810697456, 70.30231179608774
-26.743563485423696, 4.069672704303594, 86.8497542649361, -26.743563485423696, 4.069672704303594, 86.8497542649361
-13.877498912048932, 6.888101649776106, 45.396151864299284, -13.877498912048932, 6.888101649776106, 45.396151864299284
-26.727096353254208, 0.7803531781971995, 87.4298267024652, -26.727096353254208, 0.7803531781971995, 87.4298267024652
-27.22333155176626, -11.609950220606203, 89.70791636156537, -27.22333155176626, -11.609950220606203, 89.70791636156537
-21.471598612710874, 11.769617017337799, 71.27857633105376, -21.471598612710874, 11.769617017337799, 71.27857633105376
-114.83005526572731, -89.12183393757941, 384.04240513100655, -114.83005526572731, -89.12183393757941, 384.04240513100655
-27.142822114270345, -18.83792878079957, 90.77758138046153, -27.142822114270345, -18.83792878079957, 90.77758138046153
-2.4480873151916067, 4.4912278564417445, 8.249044910016353, -2.4480873151916067, 4.4912278564417445, 8.249044910016353
-26.68200429057518, -13.240693858480924, 89.9073535148712, -26.68200429057518, -13.240693858480924, 89.9073535148712
-22.187847640569725, 15.0143329898592, 74.76389853739134, -22.187847640569725, 15.0143329898592, 74.76389853739134
-13.47353700329702, 6.686116106899272, 45.40026458503392, -13.47353700329702, 6.686116106899272, 45.40026458503392
-13.582837355334426, 4.7999500428625375, 45.76856170705328, -13.582837355334426, 4.7999500428625375, 45.76856170705328
-26.571735299351342, -17.646877641553946, 90.90275114195055, -26.571735299351342, -17.646877641553946, 90.90275114195055
-13.045327460878095, 7.078859862491982, 45.320394356274264, -13.045327460878095, 7.078859862491982, 45.320394356274264
-21.464920947425604, 15.64110518649616, 74.57066026751163, -21.464920947425604, 15.64110518649616, 74.57066026751163
-26.21967558658923, 3.0487994868126886, 91.08901566797587, -26.21967558658923, 3.0487994868126886, 91.08901566797587
-13.128092844808227, 5.495480725733672, 45.60792717980904, -13.128092844808227, 5.495480725733672, 45.60792717980904
-13.05473774468932, 4.895526654258492, 45.707407337868645, -13.05473774468932, 4.895526654258492, 45.707407337868645
-21.53150368624101, 10.082212043557284, 76.58297279971677, -21.53150368624101, 10.082212043557284, 76.58297279971677
-26.290597185239744, -18.929229973372617, 94.25813521493286, -26.290597185239744, -18.929229973372617, 94.25813521493286
-2.7878412005851807, 4.811274330042167, 10.075688962679445, -2.7878412005851807, 4.811274330042167, 10.075688962679445
-21.15882777251081, 16.03975653722593, 76.4712736887499, -21.15882777251081, 16.03975653722593, 76.4712736887499
-21.179363375463378, 9.987016876234753, 77.16781360911213, -21.179363375463378, 9.987016876234753, 77.16781360911213
-101.35043444225929, -81.24786893305088, 375.377856217495, -101.35043444225929, -81.24786893305088, 375.377856217495
-21.064340963324614, 8.878358587847563, 78.01729905708427, -21.064340963324614, 8.878358587847563, 78.01729905708427
-2.7799771750715667, 4.864960056375239, 10.382176064382557, -2.7799771750715667, 4.864960056375239, 10.382176064382557
-26.176160638213766, -18.323312446749632, 97.75817976940749, -26.176160638213766, -18.323312446749632, 97.75817976940749
-21.28304580641948, 16.632968571403442, 80.152158746252, -21.28304580641948, 16.632968571403442, 80.152158746252
-21.588127117139503, 11.610421306696868, 81.30109794742454, -21.588127117139503, 11.610421306696868, 81.30109794742454
-21.263443730646596, 6.84754967597093, 80.75696711283727, -21.263443730646596, 6.84754967597093, 80.75696711283727
-12.50259611841676, 10.91328305251632, 47.4839238812878, -12.50259611841676, 10.91328305251632, 47.4839238812878
-100.15010322622749, -93.36026571936463, 380.36259295717434, -100.15010322622749, -93.36026571936463, 380.36259295717434
-25.994966723338763, 3.55486724421726, 99.57075712506514, -25.994966723338763, 3.55486724421726, 99.57075712506514
-97.24608756728182, -92.17237865072802, 378.9681422095383, -97.24608756728182, -92.17237865072802, 378.9681422095383
-98.34699128917647, -100.91256497498112, 383.25836558689866, -98.34699128917647, -100.91256497498112, 383.25836558689866
-21.129812752926203, 8.155366325690801, 83.06521672399144, -21.129812752926203, 8.155366325690801, 83.06521672399144
-25.878921009003047, -1.145085000398368, 102.63515130490966, -25.878921009003047, -1.145085000398368, 102.63515130490966
-21.105078472165506, 7.28405363198632, 83.70221160067389, -21.105078472165506, 7.28405363198632, 83.70221160067389
-6.956098843863762, 7.879474796589037, 27.587713455421532, -6.956098843863762, 7.879474796589037, 27.587713455421532
-20.748672185566782, 8.892288079528617, 83.02343386551344, -20.748672185566782, 8.892288079528617, 83.02343386551344
-94.51587394778846, -98.77334574723837, 381.6015947819706, -94.51587394778846, -98.77334574723837, 381.6015947819706
-21.42976824265964, 13.90039021145489, 86.52127304799991, -21.42976824265964, 13.90039021145489, 86.52127304799991
-20.968885248951928, 7.695003761083271, 86.21389187657188, -20.968885248951928, 7.695003761083271, 86.21389187657188
-21.165479103791007, 12.427437271950676, 87.0221905125493, -21.165479103791007, 12.427437271950676, 87.0221905125493
-11.554923056014935, 11.0248807139959, 47.50824257780567, -11.554923056014935, 11.0248807139959, 47.50824257780567
-11.554923056014935, 11.0248807139959, 47.50824257780567, -11.554923056014935, 11.0248807139959, 47.50824257780567
-89.93067997726077, -24.980744438128006, 373.1749876245849, -89.93067997726077, -24.980744438128006, 373.1749876245849
-20.776278734880318, 10.591828374644853, 91.28428049589874, -20.776278734880318, 10.591828374644853, 91.28428049589874
-20.73523652298078, 15.397452863599579, 92.00597357785544, -20.73523652298078, 15.397452863599579, 92.00597357785544
-10.092765595588572, 10.892192573456965, 44.78341607948637, -10.092765595588572, 10.892192573456965, 44.78341607948637
-6.764363080959735, 8.30476259444561, 30.014695526045294, -6.764363080959735, 8.30476259444561, 30.014695526045294
-10.94633488887793, 11.056903928159512, 49.55208596897637, -10.94633488887793, 11.056903928159512, 49.55208596897637
-23.560562716780826, 7.452831063471477, 107.74273322479327, -23.560562716780826, 7.452831063471477, 107.74273322479327
-1.803866845196325, 4.491260308447991, 8.249104514664682, -1.803866845196325, 4.491260308447991, 8.249104514664682
-14.1285199683638, 9.758874617323444, 65.27597101187534, -14.1285199683638, 9.758874617323444, 65.27597101187534
-2.8815083306136104, 5.402828119900516, 13.451696243983283, -2.8815083306136104, 5.402828119900516, 13.451696243983283
-16.839488617153073, 16.664077277391048, 78.61149779626714, -16.839488617153073, 16.664077277391048, 78.61149779626714
-10.843131657014053, 11.185546340919755, 51.151636311509385, -10.843131657014053, 11.185546340919755, 51.151636311509385
-13.85076763590388, 9.185245905915197, 65.3399267995314, -13.85076763590388, 9.185245905915197, 65.3399267995314
-13.85076763590388, 9.185245905915197, 65.3399267995314, -13.85076763590388, 9.185245905915197, 65.3399267995314
-12.84622349655588, 13.975561825923418, 63.26485057263675, -12.84622349655588, 13.975561825923418, 63.26485057263675
-5.893679078376252, 8.30472961043926, 30.014576316748638, -5.893679078376252, 8.30472961043926, 30.014576316748638
-19.725239116583175, 20.421424026580215, 103.99962091443663, -19.725239116583175, 20.421424026580215, 103.99962091443663
-5.435625926213224, -1.2941966490983863, 29.00004559755597, -5.435625926213224, -1.2941966490983863, 29.00004559755597
-13.726954986073242, 15.876959983891922, 74.11814177740466, -13.726954986073242, 15.876959983891922, 74.11814177740466
-182.97228747729213, -158.42722452302132, 999.9997019767584, -182.97228747729213, -158.42722452302132, 999.9997019767584
-18.988590411797933, 20.395152664523682, 105.05968958495197, -18.988590411797933, 20.395152664523682, 105.05968958495197
-35.73821902465535, 31.61457836796431, 205.33676179270515, -35.73821902465535, 31.61457836796431, 205.33676179270515
-19.91887185885231, 16.4662674033179, 119.023270548777, -19.91887185885231, 16.4662674033179, 119.023270548777
-19.91887185885231, 16.4662674033179, 119.023270548777, -19.91887185885231, 16.4662674033179, 119.023270548777
-19.826860446142582, 20.36272153928155, 120.07445812669147, -19.826860446142582, 20.36272153928155, 120.07445812669147
-19.670323938013457, 23.768308091766258, 122.43551745626434, -19.670323938013457, 23.768308091766258, 122.43551745626434
-13.279255885903083, 12.520441263851472, 85.01667291025358, -13.279255885903083, 12.520441263851472, 85.01667291025358
-30.741276525876966, 34.75100824664353, 199.66466424850609, -30.741276525876966, 34.75100824664353, 199.66466424850609
-27.288945784395274, 33.30856617801185, 179.84826444675113, -27.288945784395274, 33.30856617801185, 179.84826444675113
-12.717068767697036, 12.147647778098653, 85.06298572200451, -12.717068767697036, 12.147647778098653, 85.06298572200451
-30.1960449159344, 26.535918259457496, 205.03808289993302, -30.1960449159344, 26.535918259457496, 205.03808289993302
-29.723564585994552, 32.009992631071015, 204.93490725367707, -29.723564585994552, 32.009992631071015, 204.93490725367707
-28.1520060925114, 34.96297530844154, 203.49140188046704, -28.1520060925114, 34.96297530844154, 203.49140188046704
-5.096474264935562, 2.630438330289317, 36.83889131777831, -5.096474264935562, 2.630438330289317, 36.83889131777831
-11.359316726365925, 12.873892289881375, 84.84560756955192, -11.359316726365925, 12.873892289881375, 84.84560756955192
-23.044652691481897, 27.982792553942257, 184.421073461835, -23.044652691481897, 27.982792553942257, 184.421073461835
-2.173468330334768, 6.093473711831396, 17.393768870459134, -2.173468330334768, 6.093473711831396, 17.393768870459134
-21.77989865705043, 24.65648904571744, 184.1655483344524, -21.77989865705043, 24.65648904571744, 184.1655483344524
-12.167003005824029, 15.20875375728002, 104.85971598981118, -12.167003005824029, 15.20875375728002, 104.85971598981118
-12.044181738184207, 21.077318041822345, 103.80119704015237, -12.044181738184207, 21.077318041822345, 103.80119704015237
-21.08645235058047, 24.736030642027067, 181.73081765954598, -21.08645235058047, 24.736030642027067, 181.73081765954598
-6.469400545187303, 12.814389541428685, 55.75567816231717, -6.469400545187303, 12.814389541428685, 55.75567816231717
-3.466970719299526, 8.134046687587347, 29.87963139293381, -3.466970719299526, 8.134046687587347, 29.87963139293381
-11.90440469628084, 16.57279869482234, 104.6082439785149, -11.90440469628084, 16.57279869482234, 104.6082439785149
-6.989250696244617, 14.722038700600336, 66.64401690030199, -6.989250696244617, 14.722038700600336, 66.64401690030199
-6.989250696244617, 14.722038700600336, 66.64401690030199, -6.989250696244617, 14.722038700600336, 66.64401690030199
-3.0090371341595055, 4.613856939044575, 29.96701180738281, -3.0090371341595055, 4.613856939044575, 29.96701180738281
-8.852941883955523, 18.492811935373755, 88.16648055115226, -8.852941883955523, 18.492811935373755, 88.16648055115226
-2.6821886402498776, -1.0604001600987891, 27.954341647287706, -2.6821886402498776, -1.0604001600987891, 27.954341647287706
-2.3104650067029766, 2.0904207203503105, 24.653495827525603, -2.3104650067029766, 2.0904207203503105, 24.653495827525603
-2.3057001477858683, 2.4154953929185266, 24.60265306250173, -2.3057001477858683, 2.4154953929185266, 24.60265306250173
-3.2339873924564393, 8.315967580602276, 34.507813126314474, -3.2339873924564393, 8.315967580602276, 34.507813126314474
-5.225435877757232, 12.814759414499877, 55.757287487822026, -5.225435877757232, 12.814759414499877, 55.757287487822026
-2.659695808920609, 7.979087426761818, 29.07210761738465, -2.659695808920609, 7.979087426761818, 29.07210761738465
-16.84198090463278, 25.05758134591702, 184.0931882913821, -16.84198090463278, 25.05758134591702, 184.0931882913821
-2.7412999696272364, 4.546546291089066, 29.964091179614734, -2.7412999696272364, 4.546546291089066, 29.964091179614734
-2.4894694751565734, 7.27187136164156, 29.359700045567752, -2.4894694751565734, 7.27187136164156, 29.359700045567752
-2.5041361859795246, 6.3921371063161425, 29.53267273501591, -2.5041361859795246, 6.3921371063161425, 29.53267273501591
-2.4975760927168813, 6.835471411646191, 29.45530590148603, -2.4975760927168813, 6.835471411646191, 29.45530590148603
-1.9271033389160677, 7.135490741391921, 23.341657122472352, -1.9271033389160677, 7.135490741391921, 23.341657122472352
-2.427795501285974, 5.4461358542361, 29.406191671263674, -2.427795501285974, 5.4461358542361, 29.406191671263674
-2.33484470939542, 7.912529292951147, 29.065908733958526, -2.33484470939542, 7.912529292951147, 29.065908733958526
-0.775448669253217, 4.7856260731055595, 9.929180737088963, -0.775448669253217, 4.7856260731055595, 9.929180737088963
-2.3773605615785915, 6.572702729070216, 31.336070974831042, -2.3773605615785915, 6.572702729070216, 31.336070974831042
-2.426252434988975, 3.2825768238086086, 31.980516432554506, -2.426252434988975, 3.2825768238086086, 31.980516432554506
-0.8140323756795513, 4.982864845068768, 11.054933730061872, -0.8140323756795513, 4.982864845068768, 11.054933730061872
-1.9525270918094637, 6.973311042176647, 31.25125356026015, -1.9525270918094637, 6.973311042176647, 31.25125356026015
-2.574152187455739, 5.424106394996012, 41.20069987778067, -2.574152187455739, 5.424106394996012, 41.20069987778067
-1.8794184407379932, 7.726498034145087, 31.19522519083173, -1.8794184407379932, 7.726498034145087, 31.19522519083173
-2.2919162911328463, 5.9589823569453895, 41.08536488326579, -2.2919162911328463, 5.9589823569453895, 41.08536488326579
-2.2919162911328463, 5.9589823569453895, 41.08536488326579, -2.2919162911328463, 5.9589823569453895, 41.08536488326579
-2.307191344072887, 4.245232073094105, 41.3591886376851, -2.307191344072887, 4.245232073094105, 41.3591886376851
-2.4103836699346615, 11.06585230288184, 49.10117680437426, -2.4103836699346615, 11.06585230288184, 49.10117680437426
-9.190216648871946, 34.2544438730681, 187.2110478407769, -9.190216648871946, 34.2544438730681, 187.2110478407769
-9.190216648871946, 34.2544438730681, 187.2110478407769, -9.190216648871946, 34.2544438730681, 187.2110478407769
-1.8741843577305717, 9.90640303371874, 39.996447562959645, -1.8741843577305717, 9.90640303371874, 39.996447562959645
-1.8411007343628616, 4.786861909343423, 41.254940107759246, -1.8411007343628616, 4.786861909343423, 41.254940107759246
-1.3334183566475237, 8.133851975549868, 29.878916137153873, -1.3334183566475237, 8.133851975549868, 29.878916137153873
-1.4381079967974915, 2.7324051939152225, 32.22477628140308, -1.4381079967974915, 2.7324051939152225, 32.22477628140308
-8.159605834506799, 35.358291949529466, 203.15386075698498, -8.159605834506799, 35.358291949529466, 203.15386075698498
-1.5322347749143908, 9.193408649486313, 40.392878078989874, -1.5322347749143908, 9.193408649486313, 40.392878078989874
-0.5213452043450674, 5.604460946709462, 14.60272160784731, -0.5213452043450674, 5.604460946709462, 14.60272160784731
-1.7550338907972847, 12.960250270502986, 60.50211551798078, -1.7550338907972847, 12.960250270502986, 60.50211551798078
-0.8319853841350273, 8.04252537997193, 31.071545545550915, -0.8319853841350273, 8.04252537997193, 31.071545545550915
-0.4112157301480782, 5.981319711244737, 16.753495738118634, -0.4112157301480782, 5.981319711244737, 16.753495738118634
-0.4112157301480782, 5.981319711244737, 16.753495738118634, -0.4112157301480782, 5.981319711244737, 16.753495738118634
-0.6000191084876975, 8.1335923594999, 29.877962462780623, -0.6000191084876975, 8.1335923594999, 29.877962462780623
-0.9238649938194126, 11.43282929851513, 51.754358515403176, -0.9238649938194126, 11.43282929851513, 51.754358515403176
-0.737101037872324, 4.3304685974998645, 41.291954594371, -0.737101037872324, 4.3304685974998645, 41.291954594371
-0.737101037872324, 4.3304685974998645, 41.291954594371, -0.737101037872324, 4.3304685974998645, 41.291954594371
-0.6449634081382811, 3.961918078563707, 41.291954594371, -0.6449634081382811, 3.961918078563707, 41.291954594371
-0.8099822589000155, 11.571175127143023, 51.856818905879194, -0.8099822589000155, 11.571175127143023, 51.856818905879194
-0.8099822589000155, 11.571175127143023, 51.856818905879194, -0.8099822589000155, 11.571175127143023, 51.856818905879194
-2.5130062236867663, 33.92558401977134, 187.70278618948376, -2.5130062236867663, 33.92558401977134, 187.70278618948376
-0.5341339548065646, 13.086281892760725, 59.84372257254854, -0.5341339548065646, 13.086281892760725, 59.84372257254854
-0.2024981249754957, -5.534948749330222, 30.250193491589634, -0.2024981249754957, -5.534948749330222, 30.250193491589634
-0.2731323105706952, 9.832763180545031, 40.801885175817326, -0.2731323105706952, 9.832763180545031, 40.801885175817326
-0.2763514431902925, 4.053154500124286, 41.28277547852847, -0.2763514431902925, 4.053154500124286, 41.28277547852847
-1.6750025883934416, -103.01265918619329, 375.33053012672246, -1.6750025883934416, -103.01265918619329, 375.33053012672246
0.11853786881537473, 5.452741965507597, 53.12335807820308, 0.11853786881537473, 5.452741965507597, 53.12335807820308
0.15684014718754066, 13.645092805316942, 70.28872193626893, 0.15684014718754066, 13.645092805316942, 70.28872193626893
0.15684014718754066, 13.645092805316942, 70.28872193626893, 0.15684014718754066, 13.645092805316942, 70.28872193626893
0.13241934748719533, -2.3835482547695586, 29.672207216752003, 0.13241934748719533, -2.3835482547695586, 29.672207216752003
2.568744539414908, -120.73099335250073, 383.73204372716214, 2.568744539414908, -120.73099335250073, 383.73204372716214
0.6897402607566295, 5.173051955674722, 51.51844331732054, 0.6897402607566295, 5.173051955674722, 51.51844331732054
0.7407013485652817, 12.591922925609794, 55.32485576420162, 0.7407013485652817, 12.591922925609794, 55.32485576420162
5.952858902766733, -122.45881171405973, 381.1149228283717, 5.952858902766733, -122.45881171405973, 381.1149228283717
1.1345154883640072, 6.807092930184088, 50.84389751219138, 1.1345154883640072, 6.807092930184088, 50.84389751219138
8.436304806763957, -34.512156027670876, 343.70668790976333, 8.436304806763957, -34.512156027670876, 343.70668790976333
2.785869076205584, 19.072488290946023, 96.03858566514168, 2.785869076205584, 19.072488290946023, 96.03858566514168
4.004400680740478, 19.488083312936986, 119.63952300784129, 4.004400680740478, 19.488083312936986, 119.63952300784129
4.004400680740478, 19.488083312936986, 119.63952300784129, 4.004400680740478, 19.488083312936986, 119.63952300784129
1.6530519981684753, 11.15810098763726, 46.30148686775487, 1.6530519981684753, 11.15810098763726, 46.30148686775487
0.5153407851893745, 5.426235326405778, 13.58544907483155, 0.5153407851893745, 5.426235326405778, 13.58544907483155
15.375180679312722, -77.68512343231723, 362.65613810158595, 15.375180679312722, -77.68512343231723, 362.65613810158595
0.6808164910390404, 5.718858524727951, 15.255571320985037, 0.6808164910390404, 5.718858524727951, 15.255571320985037
